0.487756 -9.244139 0.006301
0.459095 -9.239599 0.006297
0.431073 -9.247956 0.006302
0.402829 -9.252233 0.006304
0.374199 -9.247430 0.006300
0.371286 -9.271568 -0.333759
0.348598 -9.232040 0.343447
0.345639 -9.243538 0.006296
0.342617 -9.266672 -0.333543
0.320307 -9.234064 0.343484
0.317039 -9.237559 0.006292
0.313983 -9.261687 -0.333328
0.292071 -9.238000 0.343596
0.288572 -9.234490 0.006289
0.285659 -9.265603 -0.333435
0.263699 -9.237853 0.343559
0.260183 -9.233333 0.006287
0.257564 -9.278423 -0.333867
0.235229 -9.233624 0.343373
0.231830 -9.233088 0.006287
0.228974 -9.274175 -0.333687
0.206878 -9.233303 0.343336
0.203612 -9.238754 0.006290
0.200736 -9.284824 -0.334047
0.178511 -9.231896 0.343261
0.175267 -9.239336 0.006290
0.172083 -9.276404 -0.333723
0.150171 -9.231401 0.343224
0.147063 -9.248828 0.006296
0.487270 -9.300870 -0.083555
0.143545 -9.271893 -0.333543
0.121861 -9.232818 0.343261
0.118611 -9.243237 0.006292
0.457994 -9.287340 -0.083420
0.115111 -9.273288 -0.333579
0.093525 -9.232148 0.343224
0.090164 -9.234557 0.006286
0.429083 -9.279712 -0.083339
0.086661 -9.273598 -0.333579
0.065179 -9.229394 0.343113
0.403112 -9.293723 0.256592
0.061839 -9.235790 0.006287
0.400698 -9.282982 -0.083357
0.058209 -9.273820 -0.333579
0.036824 -9.219558 0.342741
0.374758 -9.298912 0.256702
0.033500 -9.234937 0.006286
0.372336 -9.287165 -0.083384
0.029760 -9.274954 -0.333615
0.008533 -9.213632 0.342518
0.346488 -9.307010 0.256895
0.005163 -9.226996 0.006281
0.343990 -9.292261 -0.083420
0.001306 -9.280998 -0.333831
-0.019717 -9.205620 0.342221
0.317557 -9.297040 0.256592
-0.023125 -9.218969 0.006275
0.315209 -9.285278 -0.083348
-0.047855 -9.185530 0.341478
-0.051341 -9.206855 0.006267
-0.075970 -9.177346 0.341181
-0.079535 -9.200655 0.006263
-0.103898 -9.157085 0.340438
0.231951 -9.298570 0.256564
-0.107563 -9.183368 0.006251
0.229390 -9.273790 -0.083223
0.225833 -9.300723 -0.421329
0.203160 -9.287245 0.256233
0.201002 -9.277449 -0.083250
0.197086 -9.291385 -0.420876
0.174704 -9.289824 0.256288
0.172482 -9.275023 -0.083223
0.168470 -9.285953 -0.420605
0.146061 -9.281320 0.256040
0.143964 -9.271509 -0.083187
0.139951 -9.284428 -0.420515
0.117598 -9.282724 0.256068
0.456958 -9.297258 0.168168
0.115482 -9.268908 -0.083160
0.453338 -9.296401 -0.169937
0.111394 -9.278820 -0.420243
0.089167 -9.288039 0.256206
0.428525 -9.300614 0.168204
0.087063 -9.271218 -0.083178
0.424268 -9.285763 -0.169718
0.082882 -9.274124 -0.420017
0.060677 -9.289268 0.256233
0.400333 -9.309876 0.168349
0.058632 -9.273441 -0.083196
0.395564 -9.282027 -0.169627
0.054429 -9.274334 -0.420017
0.032119 -9.272417 0.255764
0.372008 -9.317054 0.168457
0.030230 -9.288577 -0.083330
0.367362 -9.290190 -0.169754
0.025970 -9.272460 -0.419926
0.003650 -9.218493 0.254276
0.343495 -9.320150 0.168493
0.001730 -9.275626 -0.083214
0.339114 -9.298268 -0.169882
-0.002476 -9.265503 -0.419610
-0.024597 -9.205466 0.253917
0.314191 -9.300176 0.168114
-0.026612 -9.235590 -0.082855
0.310152 -9.286273 -0.169645
-0.052770 -9.193352 0.253586
-0.054869 -9.222465 -0.082738
-0.080966 -9.192147 0.253559
-0.083063 -9.211254 -0.082640
-0.108893 -9.168866 0.252924
0.228335 -9.292679 0.167933
-0.111202 -9.200958 -0.082550
0.224694 -9.289735 -0.169663
0.199825 -9.293336 0.167933
0.195834 -9.273387 -0.169353
0.171220 -9.288906 0.167843
0.167454 -9.277942 -0.169426
0.142568 -9.279390 0.167662
0.481187 -9.305216 0.080826
0.139064 -9.283411 -0.169517
0.114098 -9.279784 0.167662
0.452443 -9.302654 0.080791
0.110594 -9.284794 -0.169535
0.085656 -9.283090 0.167717
0.423992 -9.305995 0.080809
0.082117 -9.286089 -0.169554
0.415556 -9.245065 -0.258176
0.057175 -9.283309 0.167717
0.395185 -9.301258 0.080757
0.053610 -9.283298 -0.169499
0.386815 -9.237308 -0.257925
0.028700 -9.285440 0.167753
0.366489 -9.298430 0.080722
0.025159 -9.294417 -0.169700
0.358163 -9.230460 -0.257701
0.000211 -9.218496 0.166542
0.337706 -9.292516 0.080661
-0.003341 -9.253457 -0.168951
0.329664 -9.226521 -0.257562
-0.028046 -9.210454 0.166398
-0.031641 -9.227408 -0.168477
0.301193 -9.222493 -0.257423
-0.056279 -9.206326 0.166326
-0.059872 -9.215269 -0.168258
0.272897 -9.223374 -0.257423
0.253217 -9.298056 0.420427
-0.084468 -9.200111 0.166217
-0.088048 -9.205045 -0.168075
0.244785 -9.231162 -0.257618
0.224714 -9.299787 0.420472
-0.112363 -9.172815 0.165730
0.222926 -9.265970 0.080401
-0.116213 -9.198733 -0.167965
0.216439 -9.230870 -0.257590
0.196097 -9.296438 0.420291
0.194434 -9.263611 0.080375
0.188302 -9.240486 -0.257841
0.167287 -9.281015 0.419569
0.166013 -9.264164 0.080375
0.159934 -9.240020 -0.257813
0.138872 -9.285480 0.419749
0.137709 -9.272629 0.080444
0.131628 -9.243466 -0.257897
0.110254 -9.274875 0.419253
0.109201 -9.268008 0.080401
0.103302 -9.246825 -0.257980
0.081781 -9.273172 0.419162
0.080715 -9.262300 0.080349
0.074965 -9.251097 -0.258092
0.053308 -9.269382 0.418982
0.052253 -9.254504 0.080280
0.046583 -9.251283 -0.258092
0.024826 -9.253519 0.418259
0.023868 -9.257621 0.080306
0.018177 -9.239388 -0.257757
-0.003549 -9.215591 0.416543
-0.004526 -9.241651 0.080167
-0.010159 -9.230403 -0.257506
-0.031818 -9.214537 0.416498
-0.032822 -9.225594 0.080028
-0.038465 -9.227329 -0.257423
-0.060055 -9.209401 0.416273
-0.061027 -9.210451 0.079898
-0.066724 -9.220171 -0.257227
-0.088261 -9.204179 0.416047
-0.089206 -9.202222 0.079828
-0.094969 -9.215925 -0.257116
-0.115272 -9.106971 0.411667
-0.117144 -9.178907 0.079629
-0.123109 -9.205595 -0.256837
0.192595 -9.152509 0.141213
0.182187 -9.267424 -0.196174
