0.350107 -3.581813 -0.295566
0.340338 -3.595769 -0.296630
0.451119 -3.469568 0.191324
0.329940 -3.603744 -0.297203
0.439969 -3.466974 0.191106
0.316336 -3.575949 -0.294829
0.428595 -3.462361 0.190778
0.306042 -3.584847 -0.295484
0.294633 -3.580803 -0.295075
0.284118 -3.587651 -0.295566
0.273262 -3.590493 -0.295730
0.262172 -3.590321 -0.295648
0.487040 -3.365817 0.029501
0.250530 -3.582160 -0.294911
0.476711 -3.367295 0.029501
0.239273 -3.578934 -0.294584
0.466104 -3.366761 0.029484
0.228229 -3.578657 -0.294502
0.217430 -3.582325 -0.294747
0.459896 -3.476130 0.158490
0.440061 -3.353210 -0.218287
0.206266 -3.579990 -0.294502
0.449613 -3.480496 0.158625
0.427996 -3.340687 -0.217385
0.195445 -3.583591 -0.294747
0.434810 -3.449152 0.157135
0.419107 -3.352876 -0.218094
0.184552 -3.586165 -0.294911
0.422763 -3.438571 0.156593
0.172875 -3.572777 -0.293765
0.305810 -3.609919 -0.331682
0.416491 -3.475560 0.158219
0.161642 -3.567317 -0.293274
0.294005 -3.601907 -0.330861
0.026076 -3.337677 0.493059
0.282641 -3.598821 -0.330496
0.015836 -3.337741 0.493059
0.271823 -3.602650 -0.330770
0.005541 -3.305129 0.488236
0.260985 -3.606447 -0.331043
-0.004622 -3.321948 0.490721
0.122060 -3.473982 0.479199
0.250332 -3.613191 -0.331590
0.111306 -3.471370 0.478789
0.238983 -3.609967 -0.331226
0.100282 -3.458822 0.477014
0.227216 -3.599751 -0.330223
0.215634 -3.591485 -0.329402
0.204785 -3.595112 -0.329676
0.193754 -3.595724 -0.329676
0.182267 -3.587350 -0.328855
0.174307 -3.466243 0.444720
0.170975 -3.581924 -0.328308
0.164935 -3.493513 0.448152
0.159319 -3.567509 -0.326941
0.154348 -3.496975 0.448533
0.147752 -3.553057 -0.325573
0.143578 -3.496441 0.448406
0.131268 -3.455236 0.443068
0.121913 -3.491309 0.447644
-0.423348 -3.458781 0.129540
-0.414557 -3.350580 -0.244906
-0.433211 -3.451516 0.129317
-0.424584 -3.347314 -0.244762
-0.191818 -3.578874 -0.328126
-0.445455 -3.463056 0.129800
-0.203642 -3.593182 -0.329493
-0.192009 -3.357021 0.430866
-0.455556 -3.457710 0.129652
-0.215022 -3.598505 -0.330040
-0.201412 -3.341564 0.428960
-0.466295 -3.457287 0.129689
-0.225936 -3.595841 -0.329858
-0.472528 -3.424162 0.128500
-0.466024 -3.367910 0.002314
-0.237032 -3.596124 -0.329949
-0.476494 -3.367454 0.002315
-0.248681 -3.604321 -0.330770
-0.485678 -3.358059 0.002310
-0.259666 -3.602548 -0.330679
-0.495393 -3.352596 0.002307
-0.376427 -3.371630 -0.278623
-0.270792 -3.602728 -0.330770
-0.393019 -3.424917 -0.283124
-0.281999 -3.603866 -0.330952
-0.292570 -3.597028 -0.330405
-0.412676 -3.444045 0.095677
-0.302096 -3.578252 -0.328764
-0.423606 -3.445739 0.095760
-0.313072 -3.577308 -0.328764
-0.433301 -3.437481 0.095567
-0.325753 -3.595175 -0.330496
-0.187224 -3.425854 0.406810
-0.443332 -3.432170 0.095457
-0.198878 -3.445092 0.409165
-0.455171 -3.440703 0.095732
-0.211315 -3.475193 0.412815
-0.465591 -3.438300 0.095705
-0.460153 -3.392800 -0.030716
-0.216658 -3.391282 0.402925
-0.474354 -3.423983 0.095346
-0.468223 -3.374534 -0.030564
-0.486118 -3.431420 0.095595
-0.479557 -3.380012 -0.030627
-0.484902 -3.343889 -0.030313
-0.424127 -3.439383 0.062607
-0.435179 -3.442033 0.062679
-0.445608 -3.439690 0.062661
-0.440893 -3.333949 0.183898
-0.457606 -3.449209 0.062860
-0.454870 -3.360287 0.185427
-0.465360 -3.426984 0.062481
-0.481650 -3.467134 0.063239
-0.471347 -3.460481 0.157858
-0.459747 -3.372681 0.029527
-0.481421 -3.376726 0.029588
-0.492211 -3.378202 0.029614
