0.367599 -3.310499 -0.119808
0.335681 -3.065867 0.341152
0.333417 -3.057517 0.226887
0.345659 -3.179055 0.118878
0.367463 -3.391148 0.002322
0.356476 -3.302669 -0.119485
0.355750 -3.312197 -0.241650
0.324591 -3.051069 0.339392
0.323719 -3.055551 0.226666
0.326667 -3.092647 0.115609
0.345091 -3.291820 -0.119053
0.315842 -3.057983 0.340052
0.314956 -3.062482 0.227107
0.315751 -3.079717 0.115089
0.306458 -3.058937 0.340052
0.304371 -3.051525 0.226224
0.307191 -3.089621 0.115424
0.297744 -3.066788 0.340822
0.295103 -3.053437 0.226298
0.295506 -3.067671 0.114569
0.314304 -3.289883 -0.118874
0.316209 -3.328228 -0.242519
0.287218 -3.055812 0.339502
0.286106 -3.058300 0.226592
0.287021 -3.078513 0.114941
0.278741 -3.066578 0.340602
0.276183 -3.053204 0.226151
0.276499 -3.067436 0.114495
0.293312 -3.282791 -0.118550
0.269680 -3.071379 0.341042
0.266554 -3.051056 0.225930
0.266133 -3.057319 0.114086
0.260675 -3.077144 0.341591
0.374651 -3.088643 0.313125
0.256857 -3.047885 0.225636
0.379059 -3.128637 0.202253
0.258174 -3.075050 0.114718
0.250991 -3.074957 0.341261
0.363655 -3.076933 0.311823
0.247344 -3.046670 0.225489
0.364896 -3.091134 0.199755
0.246644 -3.049930 0.113752
0.271292 -3.370097 0.002301
0.262527 -3.278379 -0.118298
0.265278 -3.334675 -0.242663
0.241011 -3.068776 0.340492
0.351938 -3.058265 0.309821
0.238850 -3.058352 0.226298
0.353929 -3.079351 0.198923
0.237751 -3.056650 0.113975
0.487137 -3.223860 -0.059530
0.253081 -3.287140 -0.118586
0.231595 -3.069501 0.340492
0.342111 -3.055375 0.309420
0.230958 -3.078960 0.227769
0.343593 -3.072488 0.198410
0.228297 -3.056368 0.113938
0.221531 -3.061275 0.339502
0.332197 -3.051465 0.308919
0.221510 -3.079654 0.227769
0.335567 -3.086425 0.199243
0.218991 -3.058051 0.113975
0.221716 -3.112111 0.002124
0.235204 -3.345930 -0.243315
0.212344 -3.064915 0.339832
0.322415 -3.048512 0.308519
0.212198 -3.082309 0.227916
0.322952 -3.057667 0.197322
0.208993 -3.049736 0.113640
0.210535 -3.088833 0.002107
0.223289 -3.296309 -0.118838
0.344345 -3.297672 -0.150155
0.223734 -3.328723 -0.242012
0.203334 -3.071503 0.340492
0.312452 -3.043548 0.307918
0.202348 -3.076975 0.227475
0.313264 -3.055665 0.197129
0.199440 -3.047371 0.113529
0.313911 -3.077857 0.085338
0.201057 -3.089464 0.002107
0.449185 -3.241480 -0.059749
0.210790 -3.260080 -0.117508
0.334226 -3.298713 -0.150155
0.213010 -3.321431 -0.241433
0.194599 -3.083024 0.341701
0.303113 -3.044493 0.307918
0.192470 -3.070614 0.226960
0.303493 -3.052640 0.196873
0.190090 -3.047969 0.113529
0.304467 -3.078805 0.085338
0.191578 -3.090066 0.002107
0.184782 -3.077653 0.341042
0.294249 -3.050360 0.308419
0.182930 -3.069199 0.226813
0.294127 -3.053556 0.196873
0.179851 -3.033574 0.112972
0.295592 -3.085695 0.085503
0.445267 -3.355030 0.061144
0.181215 -3.075665 0.002097
0.337481 -3.530765 -0.031820
0.434009 -3.279858 -0.060406
0.197727 -3.380032 -0.121785
0.313695 -3.297718 -0.150019
0.438076 -3.322180 -0.184237
0.192626 -3.322676 -0.241433
0.175471 -3.080523 0.455795
0.176639 -3.101029 0.343570
0.283871 -3.040351 0.307317
0.173851 -3.075720 0.227254
0.283923 -3.045502 0.196297
0.170992 -3.042094 0.113269
0.285385 -3.078625 0.085282
0.435486 -3.360346 0.061216
0.170830 -3.059233 0.002086
0.319464 -3.454119 -0.031120
0.423945 -3.281174 -0.060406
0.187190 -3.377629 -0.121677
0.301654 -3.277775 -0.149069
0.426989 -3.316577 -0.183853
0.183689 -3.346156 -0.243097
0.165966 -3.080059 0.455648
0.168622 -3.129347 0.346649
0.275705 -3.054090 0.308619
0.388592 -3.053584 0.280897
0.164095 -3.070264 0.226813
0.275116 -3.052322 0.196681
0.161711 -3.043602 0.113306
0.275493 -3.074508 0.085145
0.423920 -3.351747 0.061035
0.161128 -3.053751 0.002082
0.308598 -3.452094 -0.031093
0.413501 -3.279483 -0.060351
0.177558 -3.392159 -0.122181
0.291331 -3.275700 -0.148933
0.416314 -3.313908 -0.183633
0.173267 -3.343716 -0.242880
0.156214 -3.074626 0.454772
0.159222 -3.133820 0.347088
0.266248 -3.053930 0.308519
0.387442 -3.120976 0.286986
0.155026 -3.077725 0.227328
0.266010 -3.056134 0.196873
0.152272 -3.042087 0.113232
0.266921 -3.085298 0.085420
0.414369 -3.358986 0.061144
0.151758 -3.054231 0.002082
0.299295 -3.467969 -0.031228
0.403804 -3.283714 -0.060406
0.167544 -3.400673 -0.122468
0.281963 -3.284541 -0.149295
0.405781 -3.312197 -0.183469
0.162620 -3.336262 -0.242302
0.147819 -3.096830 0.457987
0.150081 -3.144222 0.348188
0.257628 -3.063656 0.309420
0.371284 -3.067774 0.281988
0.146007 -3.087151 0.227990
0.255714 -3.045997 0.196169
0.388901 -3.222770 0.177510
0.143501 -3.054519 0.113677
0.255709 -3.065183 0.084841
0.407166 -3.386051 0.061613
0.142247 -3.051686 0.002079
0.288654 -3.468871 -0.031228
0.393966 -3.286922 -0.060443
0.157848 -3.417144 -0.123043
0.272544 -3.293355 -0.149657
0.395380 -3.311443 -0.183359
0.151655 -3.320804 -0.241144
0.139773 -3.129882 0.462809
0.139591 -3.125801 0.346099
0.247504 -3.055506 0.308519
0.360937 -3.060987 0.281261
0.137284 -3.104522 0.229241
0.246931 -3.053730 0.196617
0.361291 -3.073213 0.169210
0.134612 -3.065927 0.114086
0.247024 -3.074920 0.085089
0.401545 -3.427999 0.062354
0.132841 -3.051109 0.002079
0.276014 -3.444821 -0.031003
0.381561 -3.268254 -0.060078
0.148009 -3.432588 -0.123582
0.261249 -3.279238 -0.148978
0.385104 -3.311648 -0.183304
0.143122 -3.360116 -0.243966
0.145070 -3.461274 -0.379159
0.239436 -3.060615 0.423208
0.130083 -3.128201 0.346319
0.238438 -3.060219 0.308919
0.350863 -3.056144 0.280716
0.127840 -3.106922 0.229388
0.236246 -3.037559 0.195528
0.351975 -3.075299 0.169265
0.124838 -3.057339 0.113752
0.236434 -3.060714 0.084676
0.392046 -3.438155 0.062517
0.123803 -3.059495 0.002084
0.265060 -3.440667 -0.030958
0.371871 -3.272389 -0.060132
0.137558 -3.435024 -0.123654
0.251569 -3.285004 -0.149205
0.375167 -3.314799 -0.183414
0.132734 -3.358546 -0.243821
0.134412 -3.460709 -0.379050
0.229823 -3.058372 0.422799
0.120294 -3.123619 0.345769
0.230459 -3.079788 0.310822
0.340822 -3.051268 0.280170
0.118687 -3.117265 0.230124
0.227371 -3.044241 0.195913
0.341875 -3.070410 0.168937
0.115345 -3.054711 0.113640
0.226821 -3.058434 0.084593
0.381937 -3.443317 0.062589
0.113968 -3.047869 0.002076
0.255978 -3.461408 -0.031138
0.362708 -3.281465 -0.060278
0.479266 -3.255632 -0.091803
0.126982 -3.434431 -0.123618
0.240757 -3.275798 -0.148752
0.365104 -3.316927 -0.183469
0.122320 -3.355948 -0.243604
0.123688 -3.458125 -0.378724
0.111662 -3.150809 0.465732
0.220723 -3.063015 0.423345
0.111591 -3.148806 0.348518
0.221436 -3.086435 0.311423
0.329632 -3.035468 0.278626
0.109053 -3.115621 0.229976
0.218458 -3.050896 0.196297
0.332346 -3.070452 0.168883
0.105487 -3.041069 0.113120
0.217721 -3.063104 0.084703
0.371478 -3.445467 0.062607
0.104754 -3.052202 0.002079
0.244650 -3.452203 -0.031048
0.351464 -3.271627 -0.060078
0.469418 -3.258077 -0.091831
0.115970 -3.420821 -0.123115
0.230776 -3.277518 -0.148797
0.354289 -3.312074 -0.183139
0.112656 -3.375247 -0.244979
0.101514 -3.136305 0.463540
0.211189 -3.061701 0.423072
0.102573 -3.169002 0.350717
0.212103 -3.089085 0.311623
0.320840 -3.041417 0.279080
0.099844 -3.126905 0.230786
0.209029 -3.050557 0.196233
0.321359 -3.056561 0.168064
0.095715 -3.027395 0.112600
0.206762 -3.040820 0.084069
0.360593 -3.443607 0.062553
0.095795 -3.065503 0.002088
0.235005 -3.466904 -0.031174
0.342671 -3.284623 -0.060297
0.457327 -3.244654 -0.091413
0.104828 -3.400185 -0.122360
0.221928 -3.296151 -0.149612
0.344023 -3.312152 -0.183084
0.102542 -3.383552 -0.245557
0.092095 -3.143524 0.464563
0.201208 -3.053438 0.421843
0.091889 -3.136516 0.347088
0.202820 -3.092700 0.311924
0.309682 -3.024555 0.277444
0.090999 -3.153116 0.232698
0.199995 -3.056163 0.196553
0.312487 -3.062499 0.168337
0.086370 -3.025677 0.112526
0.197109 -3.036452 0.083931
0.349117 -3.435745 0.062390
0.086502 -3.069781 0.002090
0.225917 -3.491558 -0.031389
0.332290 -3.282675 -0.060242
0.445733 -3.234159 -0.091078
0.095006 -3.422467 -0.123151
0.210854 -3.281863 -0.148933
0.335161 -3.326107 -0.183798
0.091482 -3.358925 -0.243749
0.081957 -3.125002 0.461786
0.190784 -3.037233 0.419521
0.082006 -3.126848 0.345989
0.193641 -3.098273 0.312424
0.300598 -3.027473 0.277626
0.081222 -3.149392 0.232404
0.190680 -3.057758 0.196617
0.302696 -3.059469 0.168118
0.076985 -3.021932 0.112377
0.187792 -3.037042 0.083931
0.341809 -3.469635 0.062986
0.456443 -3.373130 0.029527
0.076557 -3.049038 0.002076
0.214712 -3.484250 -0.031317
0.323389 -3.295619 -0.060461
0.437410 -3.247399 -0.091413
0.083988 -3.401763 -0.122396
0.200357 -3.275514 -0.148616
0.325053 -3.328114 -0.183853
0.080984 -3.351213 -0.243170
0.072255 -3.120294 0.461055
0.182292 -3.051649 0.421433
0.072366 -3.125097 0.345769
0.183958 -3.095873 0.312124
0.291117 -3.026398 0.277444
0.071605 -3.151621 0.232551
0.181593 -3.063310 0.196937
0.293594 -3.063365 0.168282
0.068273 -3.047130 0.113306
0.178356 -3.035608 0.083876
0.321951 -3.374122 0.061234
0.444913 -3.365592 0.029449
0.066894 -3.035262 0.002067
0.200982 -3.432983 -0.030851
0.312803 -3.291619 -0.060370
0.428619 -3.257645 -0.091664
0.073551 -3.402004 -0.122396
0.190249 -3.275117 -0.148571
0.314558 -3.326113 -0.183688
0.070849 -3.358426 -0.243676
0.062682 -3.120501 0.461055
0.174722 -3.083843 0.425803
0.063357 -3.154123 0.348957
0.174683 -3.100396 0.312524
0.282662 -3.036201 0.278262
0.413085 -3.184601 0.262605
0.061916 -3.150828 0.232478
0.172026 -3.060863 0.196745
0.280598 -3.025476 0.166153
0.058673 -3.034336 0.112823
0.168987 -3.035143 0.083849
0.287699 -3.116237 0.056538
0.433818 -3.360991 0.029397
0.057506 -3.031454 0.002064
0.171676 -3.095118 -0.027810
0.304534 -3.312476 -0.060735
0.420278 -3.271834 -0.092026
0.063391 -3.417202 -0.122935
0.180310 -3.277680 -0.148662
0.303534 -3.318113 -0.183194
0.060294 -3.344667 -0.242663
0.053310 -3.132548 0.462809
0.163140 -3.044796 0.420340
0.273989 -3.031755 0.390068
0.053883 -3.166228 0.350277
0.168927 -3.171461 0.319634
0.273346 -3.037054 0.278262
0.389418 -3.076099 0.253558
0.052017 -3.137044 0.231448
0.162953 -3.067356 0.197129
0.273633 -3.052180 0.167572
0.049770 -3.059482 0.113752
0.159517 -3.032653 0.083766
0.275472 -3.087228 0.055996
0.423129 -3.359329 0.029371
0.048141 -3.027617 0.002061
0.161865 -3.089638 -0.027756
0.300829 -3.386097 -0.062067
0.411481 -3.283027 -0.092305
0.052876 -3.415382 -0.122864
0.169580 -3.265248 -0.148074
0.292386 -3.308088 -0.182590
0.049823 -3.330874 -0.241650
0.043740 -3.135664 0.463247
0.155796 -3.084857 0.425803
0.265463 -3.041474 0.391211
0.044155 -3.165384 0.350167
0.159945 -3.186870 0.321136
0.264199 -3.039863 0.278444
0.379490 -3.073322 0.253232
0.043107 -3.190040 0.235347
0.153342 -3.063854 0.196873
0.263062 -3.039079 0.166808
0.040027 -3.032641 0.112749
0.150706 -3.043112 0.084042
0.265742 -3.085071 0.055942
0.404287 -3.291137 0.028764
0.038865 -3.028750 0.002062
0.152533 -3.093117 -0.027783
0.291635 -3.400950 -0.062323
0.403833 -3.304118 -0.092863
0.042422 -3.417527 -0.122935
0.161121 -3.297682 -0.149521
0.282744 -3.314939 -0.182920
0.407369 -3.342259 -0.217321
0.039782 -3.345971 -0.242736
0.035573 -3.269326 0.482976
0.256713 -3.049193 0.392101
0.034335 -3.155566 0.349067
0.157050 -3.333444 0.335856
0.255205 -3.044628 0.278807
0.369226 -3.067545 0.252661
0.035892 -3.436474 0.253518
0.143426 -3.053345 0.196169
0.252741 -3.027931 0.166153
0.031087 -3.068723 0.114086
0.141184 -3.039566 0.083931
0.255944 -3.081886 0.055869
0.405718 -3.388670 0.029605
0.029583 -3.029855 0.002062
0.142304 -3.077588 -0.027639
0.281282 -3.402825 -0.062341
0.391920 -3.290453 -0.092445
0.032021 -3.426634 -0.123259
0.154202 -3.368016 -0.152688
0.272409 -3.313801 -0.182810
0.397937 -3.350430 -0.217772
0.029358 -3.328125 -0.241433
0.246395 -3.038103 0.390576
0.024654 -3.155657 0.349067
0.149361 -3.391563 0.341664
0.246504 -3.053338 0.279534
0.359697 -3.067674 0.252580
0.025187 -3.414629 0.251900
0.134671 -3.067729 0.197065
0.243450 -3.028692 0.166153
0.386948 -3.315086 0.150859
0.021567 -3.053814 0.113529
0.131858 -3.039984 0.083931
0.245133 -3.065713 0.055562
0.396479 -3.399831 0.029692
0.020287 -3.029931 0.002062
0.131999 -3.058029 -0.027460
0.270127 -3.394702 -0.062177
0.383436 -3.305541 -0.092835
0.021465 -3.419721 -0.123007
0.145062 -3.396419 -0.153955
0.261297 -3.302676 -0.182151
0.387657 -3.351635 -0.217772
0.019130 -3.325207 -0.241216
0.148384 -3.513030 -0.288772
0.238384 -3.055656 0.392737
0.014888 -3.137827 0.347088
0.137937 -3.367152 0.339161
0.237135 -3.054080 0.279534
0.349606 -3.062821 0.252091
0.014638 -3.397736 0.250649
0.124037 -3.038214 0.195144
0.233926 -3.026438 0.165989
0.352416 -3.101857 0.141106
0.012150 -3.041875 0.113083
0.122169 -3.031385 0.083683
0.236646 -3.078414 0.055779
0.386610 -3.405999 0.029735
0.011002 -3.032979 0.002064
0.122256 -3.049427 -0.027379
0.260245 -3.402493 -0.062305
0.372060 -3.295775 -0.092528
0.010979 -3.421770 -0.123079
0.135076 -3.407829 -0.154453
0.250406 -3.293506 -0.181602
0.374693 -3.329009 -0.216226
0.008913 -3.319266 -0.240782
0.134719 -3.439773 -0.282715
0.228119 -3.044503 0.391211
0.005246 -3.128912 0.346099
0.128209 -3.383468 0.340763
0.229393 -3.076641 0.281534
0.339108 -3.053974 0.251276
0.004198 -3.384800 0.249693
0.116598 -3.088442 0.198346
0.224714 -3.028137 0.166044
0.342350 -3.097959 0.140880
0.002829 -3.054888 0.113566
0.113017 -3.035742 0.083793
0.225067 -3.050209 0.055255
0.378134 -3.425060 0.029891
0.001697 -3.032999 0.002064
0.112604 -3.041794 -0.027307
0.251196 -3.422221 -0.062652
0.361183 -3.289946 -0.092333
0.000481 -3.417790 -0.122935
0.124401 -3.402237 -0.154181
0.241608 -3.312184 -0.182590
0.363067 -3.317247 -0.215388
-0.001273 -3.325262 -0.241216
0.123518 -3.422242 -0.281242
0.219773 -3.059039 0.392991
-0.004344 -3.121956 0.345329
0.119386 -3.428592 0.345269
0.220592 -3.086271 0.282351
0.330057 -3.057973 0.251520
-0.006112 -3.343908 0.246677
0.106292 -3.064849 0.196809
0.214998 -3.022836 0.165716
0.331990 -3.091049 0.140519
-0.006520 -3.043891 0.113157
0.103498 -3.030080 0.083628
0.216766 -3.065845 0.055526
0.368904 -3.438135 0.029995
-0.007628 -3.040990 0.002070
0.103509 -3.049121 -0.027370
0.239854 -3.411008 -0.062433
0.351088 -3.291038 -0.092333
-0.009970 -3.405783 -0.122504
0.113394 -3.385630 -0.153412
0.230541 -3.299961 -0.181877
0.355843 -3.346130 -0.217192
-0.011454 -3.319258 -0.240782
0.113610 -3.440535 -0.282715
-0.013945 -3.127035 0.461932
0.209910 -3.052772 0.392101
-0.013953 -3.128886 0.346099
0.110351 -3.475682 0.349975
0.210579 -3.078984 0.281624
0.319739 -3.050050 0.250787
-0.016214 -3.311961 0.244322
0.097961 -3.099074 0.198987
0.206062 -3.028463 0.165989
0.320536 -3.073174 0.139661
-0.015910 -3.053849 0.113529
0.094263 -3.032381 0.083683
0.206752 -3.057518 0.055364
0.356904 -3.425327 0.029874
-0.017008 -3.049952 0.002076
0.093969 -3.043427 -0.027316
0.229857 -3.418710 -0.062560
0.340783 -3.290111 -0.092277
-0.020418 -3.405736 -0.122504
0.103402 -3.398942 -0.154000
0.220282 -3.298660 -0.181767
0.346395 -3.355147 -0.217707
-0.021586 -3.311229 -0.240203
0.102338 -3.416959 -0.280751
-0.023307 -3.096311 0.457402
0.199439 -3.036576 0.389940
0.308817 -3.020985 0.360065
-0.023485 -3.119883 0.345109
0.098946 -3.450145 0.347372
0.200613 -3.071666 0.280897
0.307455 -3.022261 0.248423
-0.025740 -3.232115 0.238437
0.088424 -3.098362 0.198923
0.196511 -3.025095 0.165771
0.312314 -3.086070 0.140202
-0.025370 -3.064778 0.113938
0.085016 -3.034655 0.083738
0.196920 -3.051153 0.055237
0.341264 -3.375666 0.029431
-0.026382 -3.051885 0.002077
0.084048 -3.022710 -0.027128
0.219112 -3.415408 -0.062487
0.328289 -3.267271 -0.091608
-0.030813 -3.399662 -0.122288
0.092837 -3.394251 -0.153774
0.210351 -3.302310 -0.181932
0.332620 -3.321441 -0.215453
-0.032002 -3.338075 -0.242157
0.091801 -3.415264 -0.280587
-0.032859 -3.101171 0.458133
0.081353 -3.138257 0.432768
0.191671 -3.061923 0.393118
0.301898 -3.045635 0.362891
-0.033098 -3.123772 0.345549
0.088819 -3.468337 0.349174
0.191435 -3.076243 0.281261
0.300529 -3.046995 0.250379
-0.035436 -3.212076 0.236965
0.078766 -3.092633 0.198538
0.188709 -3.049602 0.167081
0.301479 -3.073095 0.139570
-0.034671 -3.055692 0.113603
0.075880 -3.041896 0.083931
0.187129 -3.044757 0.055111
0.333734 -3.405558 0.029683
-0.035722 -3.049790 0.002076
0.074823 -3.024953 -0.027146
0.208267 -3.410077 -0.062378
0.319911 -3.285176 -0.092082
-0.041242 -3.399551 -0.122288
0.083029 -3.419486 -0.154905
0.199675 -3.293969 -0.181438
0.323585 -3.334365 -0.216226
-0.042357 -3.346937 -0.242808
0.081323 -3.415530 -0.280587
-0.042522 -3.111936 0.459740
0.071407 -3.124626 0.430856
0.181628 -3.051605 0.391720
0.294261 -3.064340 0.365011
-0.042804 -3.132600 0.346539
0.070712 -3.137350 0.315829
0.182702 -3.088745 0.282351
0.290800 -3.043934 0.250053
-0.044531 -3.158104 0.232993
0.069545 -3.104832 0.199307
0.176245 -2.997337 0.164187
0.290254 -3.055110 0.138712
-0.043887 -3.044580 0.113195
0.066350 -3.033120 0.083683
0.176971 -3.031343 0.054858
0.321017 -3.382674 0.029475
-0.044975 -3.042667 0.002071
0.065910 -3.042164 -0.027298
0.197804 -3.410699 -0.062378
0.310581 -3.294104 -0.092305
-0.051748 -3.404405 -0.122468
0.072008 -3.394756 -0.153774
0.189569 -3.294567 -0.181438
0.314194 -3.344284 -0.216805
-0.052594 -3.344797 -0.242663
0.071009 -3.423734 -0.281242
-0.052201 -3.119704 0.460909
0.061350 -3.101060 0.427578
0.172600 -3.058089 0.392482
0.285410 -3.071161 0.365717
-0.052913 -3.162268 0.349837
0.061106 -3.138547 0.315929
0.174006 -3.103211 0.283624
0.282745 -3.058706 0.251194
-0.054014 -3.145987 0.232110
0.063973 -3.309572 0.212436
0.168827 -3.029766 0.165934
0.281428 -3.061955 0.138983
-0.053542 -3.062416 0.113863
0.056819 -3.021316 0.083352
0.168498 -3.046846 0.055129
0.307164 -3.345803 0.029145
-0.054327 -3.043514 0.002072
0.056596 -3.043351 -0.027307
0.187339 -3.411290 -0.062378
0.301382 -3.304996 -0.092584
-0.062265 -3.408227 -0.122612
0.061339 -3.380978 -0.153141
0.179949 -3.304106 -0.181932
0.303842 -3.344238 -0.216741
-0.062761 -3.339633 -0.242302
0.060558 -3.426926 -0.281487
-0.063731 -3.218436 0.475523
0.051853 -3.102224 0.427715
0.168608 -3.159633 0.405447
0.274298 -3.053230 0.363480
-0.062556 -3.159110 0.349507
0.051444 -3.136730 0.315729
0.166434 -3.140526 0.286986
0.273359 -3.059559 0.251194
-0.063625 -3.143812 0.231963
0.056496 -3.474392 0.223003
0.159111 -3.022293 0.165498
0.272033 -3.062804 0.138983
-0.062998 -3.065235 0.113975
0.047581 -3.023476 0.083407
0.159202 -3.048348 0.055147
0.297693 -3.355695 0.029223
-0.063497 -3.035335 0.002067
0.047320 -3.047510 -0.027343
0.176872 -3.411849 -0.062378
0.289398 -3.284994 -0.091998
-0.072657 -3.405022 -0.122504
0.051117 -3.391139 -0.153593
0.169862 -3.305639 -0.181987
0.292446 -3.332231 -0.215904
-0.072614 -3.321477 -0.240999
0.049825 -3.412147 -0.280260
0.042673 -3.127132 0.431129
0.265874 -3.064940 0.364775
-0.071952 -3.145985 0.348078
0.041780 -3.133889 0.315428
0.156153 -3.128092 0.285805
0.263972 -3.060383 0.251194
-0.072689 -3.118677 0.230124
0.046205 -3.502489 0.224797
0.150283 -3.031743 0.165989
0.262294 -3.059643 0.138803
-0.072237 -3.058034 0.113715
0.038558 -3.043598 0.083959
0.149653 -3.044827 0.055075
0.284496 -3.322717 0.028928
-0.072713 -3.031127 0.002064
0.038120 -3.059639 -0.027451
0.165187 -3.387409 -0.061921
0.280250 -3.296823 -0.092305
-0.082494 -3.379807 -0.121605
0.040593 -3.381290 -0.153141
0.159286 -3.297169 -0.181492
0.283316 -3.346039 -0.216741
-0.084147 -3.375080 -0.244906
0.039322 -3.409294 -0.280014
0.032869 -3.107437 0.428398
0.256386 -3.064751 0.364657
-0.081835 -3.154692 0.349067
0.032349 -3.151911 0.317231
0.161281 -3.442904 0.314522
0.254168 -3.056212 0.250787
-0.083387 -3.161307 0.233287
0.035419 -3.498623 0.224540
0.142650 -3.068097 0.167955
0.252165 -3.051472 0.138396
-0.081458 -3.051804 0.113492
0.029182 -3.039704 0.083849
0.139988 -3.038280 0.054948
0.257028 -3.114294 0.027107
-0.081822 -3.023893 0.002059
0.028658 -3.051743 -0.027379
0.155798 -3.409874 -0.062323
0.269808 -3.293682 -0.092194
-0.093466 -3.401516 -0.122396
0.030157 -3.374406 -0.152824
0.149170 -3.297642 -0.181492
0.272806 -3.343909 -0.216548
-0.093161 -3.326951 -0.241433
0.028879 -3.411392 -0.280178
0.023358 -3.110495 0.428807
0.246584 -3.060574 0.364069
-0.090188 -3.108724 0.344010
0.022765 -3.163935 0.318432
0.151110 -3.452337 0.315339
0.244791 -3.056978 0.250787
-0.098399 -3.341468 0.246603
0.024326 -3.447821 0.221274
0.132500 -3.051561 0.167026
0.242327 -3.046257 0.138125
-0.089959 -3.022573 0.112414
0.019797 -3.030782 0.083600
0.130581 -3.036698 0.054912
0.245493 -3.090147 0.026890
-0.090979 -3.019629 0.002056
0.019156 -3.029817 -0.027182
0.144569 -3.392355 -0.061994
0.260802 -3.308445 -0.092584
-0.103535 -3.389226 -0.121965
0.019927 -3.395461 -0.153774
0.139389 -3.306065 -0.181932
0.260984 -3.324833 -0.215260
-0.103274 -3.323658 -0.241216
0.018322 -3.394522 -0.278786
0.013987 -3.149186 0.434133
0.235889 -3.044485 0.362067
-0.101382 -3.160091 0.349727
0.013009 -3.152050 0.317231
0.141651 -3.480645 0.317884
0.236023 -3.065664 0.251439
-0.108812 -3.346134 0.246971
0.013538 -3.394989 0.217880
0.123339 -3.056942 0.167299
0.234046 -3.060931 0.138758
-0.099625 -3.034268 0.112860
0.010502 -3.031829 0.083628
0.121343 -3.039082 0.054948
0.235402 -3.082909 0.026821
-0.100342 -3.022334 0.002058
0.009890 -3.038862 -0.027262
0.133410 -3.373801 -0.061648
0.253217 -3.343120 -0.093532
-0.113933 -3.388893 -0.121965
0.009521 -3.399502 -0.153955
0.129323 -3.308473 -0.182041
0.251007 -3.328603 -0.215453
-0.113743 -3.331300 -0.241795
0.008116 -3.484260 -0.286153
0.134322 -3.487817 -0.319556
0.004291 -3.124449 0.430719
0.226842 -3.049156 0.362538
-0.111600 -3.174665 0.351376
0.003328 -3.142125 0.316229
0.129512 -3.442252 0.314340
0.227792 -3.082277 0.252743
-0.119148 -3.347778 0.247118
0.003124 -3.397010 0.218008
0.113625 -3.048326 0.166808
0.223631 -3.047686 0.138125
-0.109400 -3.046931 0.113343
0.001195 -3.017852 0.083242
0.112203 -3.044436 0.055038
0.226162 -3.086609 0.026847
-0.109759 -3.026009 0.002061
0.000566 -3.033878 -0.027218
0.123351 -3.382187 -0.061794
0.246147 -3.387748 -0.094759
-0.124989 -3.406503 -0.122612
-0.000902 -3.373542 -0.152779
0.119460 -3.316837 -0.182481
0.239786 -3.315423 -0.214551
-0.124000 -3.331932 -0.241868
-0.002631 -3.562007 -0.292537
0.123233 -3.477265 -0.318553
-0.005404 -3.188838 0.439596
0.217698 -3.052809 0.362891
-0.121757 -3.185233 0.352586
-0.006332 -3.152070 0.317231
0.119776 -3.466519 0.316521
0.217560 -3.072026 0.251846
-0.129303 -3.344407 0.246897
-0.007266 -3.382035 0.217047
0.103760 -3.033691 0.165989
0.213579 -3.038393 0.137674
-0.118046 -3.028607 0.112674
-0.008074 -3.021840 0.083352
0.103099 -3.051761 0.055165
0.215221 -3.066341 0.026664
-0.119475 -3.036650 0.002069
-0.008753 -3.037865 -0.027254
0.106132 -3.177698 -0.058051
0.237140 -3.408431 -0.095317
-0.135201 -3.400113 -0.122396
-0.011388 -3.414481 -0.154634
0.109579 -3.326169 -0.182975
0.229269 -3.311166 -0.214229
-0.134462 -3.337516 -0.242302
-0.013562 -3.562979 -0.292619
0.111952 -3.458716 -0.316821
-0.015045 -3.159088 0.435499
0.108013 -3.391536 0.434806
0.208467 -3.055444 0.363127
-0.136409 -3.303022 0.365669
-0.015891 -3.130147 0.315028
0.109046 -3.463885 0.316248
0.209279 -3.089583 0.253232
-0.139605 -3.344991 0.246971
-0.017590 -3.372017 0.216407
0.095478 -3.066930 0.167791
0.204190 -3.038037 0.137629
-0.127295 -3.027232 0.112637
-0.017403 -3.031797 0.083628
0.093674 -3.050064 0.055129
0.205947 -3.068982 0.026682
-0.129172 -3.045261 0.002075
-0.018097 -3.041824 -0.027289
0.092290 -3.043094 -0.055587
0.226947 -3.413132 -0.095428
-0.145161 -3.388699 -0.122001
-0.021825 -3.408437 -0.154362
0.098987 -3.313515 -0.182261
0.219241 -3.313845 -0.214358
-0.144442 -3.331109 -0.241868
-0.024473 -3.559930 -0.292374
0.101369 -3.460039 -0.316912
-0.142783 -3.217880 0.475815
-0.024869 -3.175867 0.437820
0.095239 -3.309559 0.424257
0.199544 -3.063006 0.363951
-0.147820 -3.331384 0.368857
-0.025462 -3.126104 0.314627
0.098192 -3.456239 0.315521
0.199928 -3.092200 0.253395
-0.149822 -3.343551 0.246897
-0.027555 -3.326043 0.213461
0.085928 -3.062218 0.167518
0.194676 -3.035658 0.137493
-0.136943 -3.034813 0.112935
-0.026774 -3.039726 0.083849
0.084289 -3.049337 0.055111
0.196402 -3.067603 0.026664
-0.138650 -3.047847 0.002077
-0.027556 -3.055753 -0.027415
0.083172 -3.051358 -0.055733
0.216980 -3.421793 -0.095652
-0.156061 -3.399219 -0.122396
-0.032225 -3.402360 -0.154091
0.089008 -3.320790 -0.182645
0.208885 -3.311514 -0.214165
-0.154938 -3.336628 -0.242302
-0.035137 -3.533927 -0.290246
0.090780 -3.461329 -0.317003
-0.148764 -3.135410 0.463686
-0.034159 -3.134172 0.432085
0.086028 -3.346523 0.428960
0.190638 -3.071532 0.364893
-0.157333 -3.316022 0.367208
-0.035041 -3.125016 0.314527
0.087916 -3.469466 0.316703
0.190869 -3.099762 0.253965
-0.150634 -3.145838 0.232331
-0.035935 -3.165284 0.203150
0.076034 -3.042503 0.166426
0.185545 -3.039233 0.137629
-0.146253 -3.034379 0.112935
-0.036171 -3.045627 0.084014
0.074417 -3.028592 0.054731
0.187173 -3.071186 0.026690
-0.148243 -3.052402 0.002080
-0.036979 -3.059653 -0.027451
0.074149 -3.065592 -0.055988
0.206421 -3.421445 -0.095624
-0.166538 -3.399722 -0.122432
-0.042551 -3.393255 -0.153683
0.078511 -3.308071 -0.181932
0.199143 -3.319112 -0.214615
-0.163991 -3.312229 -0.240565
-0.044384 -3.411225 -0.280178
0.079791 -3.445662 -0.315544
-0.154988 -3.067754 0.453749
-0.044383 -3.177636 0.438094
0.072416 -3.199018 0.410022
0.181155 -3.071111 0.364775
-0.170364 -3.372107 0.373475
-0.044628 -3.124894 0.314527
0.074389 -3.340290 0.304889
0.180020 -3.077449 0.252091
-0.156783 -3.076637 0.227254
-0.045041 -3.123249 0.200460
0.067400 -3.074667 0.168173
0.174716 -3.013858 0.136455
-0.155459 -3.031920 0.112860
-0.045126 -3.019514 0.083297
0.065276 -3.035803 0.054858
0.176536 -3.050782 0.026508
-0.157142 -3.042944 0.002074
-0.046396 -3.061525 -0.027469
0.064511 -3.054810 -0.055788
0.195981 -3.423060 -0.095652
-0.177175 -3.403187 -0.122576
-0.053008 -3.396105 -0.153819
0.068280 -3.304303 -0.181712
0.189526 -3.329671 -0.215260
-0.174780 -3.323662 -0.241433
-0.054256 -3.374202 -0.277149
0.069300 -3.449873 -0.315909
-0.164876 -3.076155 0.455064
-0.053676 -3.150741 0.434406
0.060797 -3.106997 0.398202
0.173229 -3.098423 0.367954
-0.183582 -3.425164 0.379412
-0.053697 -3.094897 0.311523
0.059476 -3.097556 0.282715
0.170246 -3.072016 0.251602
-0.165683 -3.066183 0.226519
-0.055024 -3.146046 0.201933
0.057835 -3.067871 0.167791
0.167495 -3.051286 0.138125
-0.164272 -3.022448 0.112526
-0.054966 -3.051344 0.084179
0.055962 -3.035989 0.054858
0.167012 -3.048313 0.026482
-0.166040 -3.034460 0.002069
-0.055679 -3.055370 -0.027415
0.055102 -3.052994 -0.055751
0.184775 -3.410670 -0.095289
-0.187560 -3.401630 -0.122540
-0.063240 -3.385938 -0.153367
0.058423 -3.320470 -0.182590
0.178398 -3.313296 -0.214165
-0.184311 -3.311160 -0.240565
-0.064646 -3.376013 -0.277313
0.058241 -3.422190 -0.313356
-0.172689 -3.046992 0.450826
-0.063243 -3.145610 0.433724
0.051346 -3.112127 0.398837
0.165765 -3.137615 0.372546
-0.193245 -3.409699 0.377762
-0.064025 -3.135504 0.315629
0.050053 -3.102703 0.283169
0.162436 -3.103378 0.254128
-0.174748 -3.059686 0.226077
-0.064184 -3.121916 0.200396
0.048517 -3.074024 0.168118
0.158030 -3.049790 0.138035
-0.173429 -3.019935 0.112452
-0.063674 -3.020180 0.083325
0.046570 -3.031148 0.054768
0.157504 -3.045816 0.026456
-0.176388 -3.051906 0.002081
-0.065137 -3.059183 -0.027451
0.045796 -3.057147 -0.055824
0.174055 -3.406229 -0.095150
-0.197647 -3.395053 -0.122324
-0.073888 -3.397713 -0.153910
0.047916 -3.298669 -0.181383
0.167928 -3.307848 -0.213778
-0.194001 -3.302614 -0.239986
-0.075402 -3.393734 -0.278786
0.047714 -3.420361 -0.313174
-0.073536 -3.173131 0.437547
0.041944 -3.123180 0.400235
0.155842 -3.132158 0.371840
-0.203765 -3.410082 0.377872
-0.073808 -3.142255 0.316330
0.040677 -3.113796 0.284169
0.153061 -3.106849 0.254373
-0.182816 -3.037235 0.224459
-0.073431 -3.107738 0.199499
0.039695 -3.122083 0.170739
0.148964 -3.056248 0.138306
-0.183659 -3.035348 0.113046
-0.072819 -3.014974 0.083187
0.037332 -3.036275 0.054858
0.148304 -3.049281 0.026482
-0.185568 -3.048356 0.002079
-0.074401 -3.053971 -0.027406
0.036726 -3.083267 -0.056299
0.163508 -3.404750 -0.095094
-0.208551 -3.402410 -0.122612
-0.084386 -3.400467 -0.154045
0.037521 -3.274839 -0.180065
0.157637 -3.305358 -0.213585
-0.204994 -3.315940 -0.240999
-0.085914 -3.397472 -0.279114
0.037144 -3.413521 -0.312536
-0.084726 -3.228347 0.445195
0.032568 -3.143131 0.402777
0.146093 -3.129645 0.371487
-0.213415 -3.396545 0.376443
-0.083395 -3.140025 0.316129
0.031313 -3.132826 0.285896
0.145322 -3.146132 0.257551
-0.192070 -3.035665 0.224385
-0.082832 -3.102510 0.199179
0.029596 -3.068273 0.167791
0.139314 -3.050703 0.138035
-0.191512 -3.011833 0.112192
-0.082558 -3.032723 0.083683
0.027878 -3.021378 0.054587
0.138539 -3.040731 0.026404
-0.195110 -3.050767 0.002081
-0.083605 -3.047731 -0.027352
0.026895 -3.041374 -0.055532
0.153690 -3.419216 -0.095484
-0.218475 -3.393776 -0.122324
-0.094679 -3.395199 -0.153819
0.027474 -3.274938 -0.180065
0.147584 -3.307819 -0.213714
-0.214197 -3.300366 -0.239914
-0.096308 -3.396196 -0.279032
0.026703 -3.417602 -0.312900
-0.094717 -3.231042 0.445604
0.022780 -3.123379 0.400235
0.136794 -3.137023 0.372311
-0.203766 -3.091396 0.342691
-0.093411 -3.152683 0.317431
0.021729 -3.136891 0.286259
0.143913 -3.337747 0.273200
-0.201184 -3.032076 0.224164
-0.093241 -3.132166 0.201100
0.020203 -3.071345 0.167955
0.130464 -3.063093 0.138577
-0.200751 -3.011231 0.112192
-0.092165 -3.042447 0.083959
0.018498 -3.003453 0.054262
0.129379 -3.045138 0.026439
-0.206074 -3.074100 0.002097
-0.092589 -3.035466 -0.027245
0.017824 -3.086434 -0.056354
0.142614 -3.405689 -0.095094
-0.228684 -3.390098 -0.122217
-0.104569 -3.377918 -0.153050
0.017453 -3.280000 -0.180340
0.137435 -3.308257 -0.213714
-0.225539 -3.317605 -0.241216
-0.106101 -3.375962 -0.277395
0.016099 -3.392772 -0.310621
0.144057 -3.497080 -0.354966
-0.103347 -3.191132 0.440142
0.013332 -3.155174 0.404303
0.127531 -3.146358 0.373371
-0.211128 -3.060018 0.339282
-0.102725 -3.141443 0.316330
0.012174 -3.154868 0.287895
0.138776 -3.465645 0.283633
-0.210693 -3.034429 0.224385
-0.109434 -3.332345 0.213973
0.010818 -3.082376 0.168555
0.120829 -3.057489 0.138306
-0.210197 -3.013592 0.112303
-0.101265 -3.035156 0.083766
0.009271 -2.999496 0.054190
0.120115 -3.047519 0.026456
-0.214246 -3.055497 0.002085
-0.102271 -3.046161 -0.027343
0.008401 -3.103471 -0.056664
0.133173 -3.432081 -0.095819
-0.238380 -3.379412 -0.121857
-0.114796 -3.373588 -0.152869
0.007408 -3.288026 -0.180779
0.128359 -3.336584 -0.215517
-0.235716 -3.316897 -0.241216
-0.116905 -3.388569 -0.278459
0.005750 -3.428656 -0.313903
-0.111206 -3.136349 0.432631
0.003620 -3.127427 0.400744
0.117394 -3.133834 0.371840
-0.219515 -3.045477 0.337743
-0.112469 -3.144096 0.316630
0.002488 -3.145928 0.287077
0.127959 -3.461074 0.283225
-0.219569 -3.027800 0.223944
-0.113640 -3.164446 0.203214
0.001360 -3.078401 0.168337
0.111484 -3.058844 0.138351
-0.219442 -3.012932 0.112303
-0.110394 -3.029836 0.083628
0.000069 -2.995511 0.054117
0.110765 -3.047873 0.026456
-0.223911 -3.058815 0.002088
-0.111689 -3.047831 -0.027361
-0.001113 -3.082486 -0.056281
0.121358 -3.396510 -0.094815
-0.247793 -3.365708 -0.121390
-0.124516 -3.356249 -0.152100
-0.002682 -3.291028 -0.180943
0.116922 -3.303054 -0.213327
-0.245817 -3.315164 -0.241144
-0.127225 -3.386202 -0.278295
-0.004825 -3.469487 -0.317641
-0.121819 -3.161731 0.436182
-0.005964 -3.121472 0.399981
0.107233 -3.118300 0.369956
-0.228782 -3.043798 0.337633
-0.121265 -3.121863 0.314427
-0.007200 -3.161854 0.288531
0.117239 -3.458462 0.282981
-0.228330 -3.020151 0.223429
-0.120665 -3.095276 0.198795
-0.008247 -3.140297 0.171722
0.101666 -3.046192 0.137764
-0.229441 -3.022210 0.112674
-0.119768 -3.031481 0.083683
-0.009158 -3.007495 0.054334
0.101946 -3.064189 0.026595
-0.234435 -3.073070 0.002098
-0.120722 -3.039481 -0.027289
-0.010525 -3.069470 -0.056043
0.111002 -3.398865 -0.094871
-0.258271 -3.366925 -0.121462
-0.136176 -3.389789 -0.153638
-0.012837 -3.305982 -0.181767
0.106820 -3.304394 -0.213392
-0.256678 -3.323344 -0.241795
-0.137290 -3.377829 -0.277640
-0.015536 -3.484393 -0.319009
0.098863 -3.104869 0.484512
-0.129624 -3.115813 0.429900
-0.015614 -3.136317 0.401888
0.098039 -3.130525 0.371369
-0.237422 -3.034163 0.336644
-0.130884 -3.122471 0.314527
-0.016826 -3.147875 0.287259
0.106382 -3.450836 0.282329
-0.237986 -3.024408 0.223797
-0.130287 -3.097883 0.198987
-0.017864 -3.137262 0.171558
0.092290 -3.045491 0.137719
-0.238240 -3.015514 0.112452
-0.128685 -3.022111 0.083435
-0.018415 -3.012452 0.054424
0.092967 -3.078481 0.026716
-0.243150 -3.063365 0.002092
-0.130901 -3.059077 -0.027469
-0.020001 -3.078422 -0.056208
0.100544 -3.398190 -0.094843
-0.266612 -3.341212 -0.120563
-0.147395 -3.408318 -0.154498
-0.023083 -3.320904 -0.182590
0.096565 -3.300717 -0.213134
-0.269348 -3.353360 -0.244038
-0.147043 -3.363453 -0.276494
-0.026226 -3.484329 -0.319009
0.089536 -3.112071 0.485591
-0.139183 -3.115400 0.429900
-0.025260 -3.139230 0.402269
0.088686 -3.139745 0.372429
-0.246326 -3.028467 0.336094
-0.140105 -3.114103 0.313726
-0.026131 -3.105984 0.283442
0.087830 -3.164215 0.258856
-0.246532 -3.014718 0.223135
-0.139475 -3.090490 0.198538
-0.027192 -3.103244 0.169702
0.082810 -3.040767 0.137493
-0.247899 -3.019749 0.112637
-0.137546 -3.012715 0.083187
-0.027722 -3.019380 0.054551
0.082871 -3.054761 0.026508
-0.253862 -3.078550 0.002103
-0.140698 -3.067652 -0.027550
-0.029378 -3.071347 -0.056080
0.090277 -3.404478 -0.095010
-0.273807 -3.303529 -0.119233
-0.155863 -3.364940 -0.152552
-0.033312 -3.324811 -0.182810
0.086386 -3.299002 -0.213005
-0.278723 -3.341585 -0.243242
-0.157454 -3.364977 -0.276658
-0.037074 -3.499169 -0.320376
0.080597 -3.136036 0.489289
-0.149165 -3.123864 0.431129
-0.035222 -3.168893 0.406082
0.078928 -3.135039 0.371840
-0.254697 -3.016803 0.334885
-0.150279 -3.126578 0.315028
-0.036152 -3.148709 0.287350
0.077433 -3.136571 0.256573
-0.255443 -3.009972 0.222840
-0.147755 -3.065128 0.196937
-0.036405 -3.077187 0.168282
0.073770 -3.052991 0.138035
-0.258095 -3.029927 0.113046
-0.146594 -3.008285 0.083077
-0.037107 -3.029278 0.054731
0.073282 -3.046004 0.026430
-0.287940 -3.365705 0.002299
-0.149766 -3.060214 -0.027487
-0.038877 -3.077242 -0.056189
0.079856 -3.405739 -0.095038
-0.281544 -3.274794 -0.118227
-0.167270 -3.386396 -0.153548
-0.043786 -3.345660 -0.183963
0.076633 -3.315214 -0.214036
-0.289403 -3.345683 -0.243604
-0.169216 -3.393345 -0.279032
-0.045877 -3.357643 -0.307430
0.070595 -3.119476 0.486669
-0.158598 -3.120424 0.430719
-0.044606 -3.144967 0.403032
0.069837 -3.159093 0.374666
-0.264211 -3.018978 0.335215
-0.158702 -3.103248 0.312725
-0.045218 -3.107757 0.283624
0.067681 -3.130815 0.256084
-0.265987 -3.024076 0.223944
-0.156749 -3.056687 0.196425
-0.046098 -3.094034 0.169210
0.064572 -3.061193 0.138396
-0.267302 -3.028125 0.113009
-0.155770 -3.006823 0.083049
-0.046324 -3.024152 0.054641
0.064063 -3.052213 0.026482
-0.298529 -3.367794 0.002301
-0.158375 -3.044761 -0.027352
-0.048035 -3.059113 -0.055861
0.069834 -3.426955 -0.095624
-0.292210 -3.280883 -0.118478
-0.177659 -3.385867 -0.153548
-0.054292 -3.360485 -0.184786
0.066702 -3.327406 -0.214809
-0.297798 -3.323918 -0.242085
-0.181839 -3.434610 -0.282470
-0.056178 -3.357486 -0.307430
-0.166464 -3.088268 0.426349
-0.054528 -3.160683 0.405065
0.060088 -3.156314 0.374313
-0.273203 -3.015183 0.334885
-0.168491 -3.107714 0.313225
-0.054927 -3.117561 0.284533
0.057853 -3.119050 0.255106
-0.275535 -3.026225 0.224164
-0.166234 -3.058185 0.196553
-0.055304 -3.077904 0.168337
0.055558 -3.082352 0.139345
-0.275681 -3.017339 0.112637
-0.165378 -3.013317 0.083242
-0.055749 -3.031993 0.054786
0.054072 -3.017402 0.026179
-0.308769 -3.365866 0.002301
-0.169036 -3.068224 -0.027567
-0.057438 -3.059951 -0.055879
0.059424 -3.433150 -0.095791
-0.302917 -3.286937 -0.118730
-0.187935 -3.383311 -0.153457
-0.063930 -3.325362 -0.182865
0.056103 -3.304646 -0.213327
-0.307902 -3.321995 -0.242012
-0.193045 -3.445977 -0.283452
-0.067444 -3.406085 -0.311897
-0.176445 -3.096644 0.427578
-0.063701 -3.134717 0.401761
0.050293 -3.149533 0.373488
-0.282545 -3.015320 0.334995
-0.177000 -3.089302 0.311423
-0.065172 -3.150234 0.287531
0.048623 -3.141137 0.256899
-0.283976 -3.016430 0.223502
-0.175444 -3.054672 0.196361
-0.064977 -3.088701 0.168937
0.045564 -3.046548 0.137719
-0.282682 -2.992602 0.111746
-0.174506 -3.010800 0.083187
-0.065115 -3.034806 0.054840
0.044977 -3.028552 0.026274
-0.320321 -3.377845 0.002310
-0.176938 -3.041736 -0.027334
-0.066608 -3.049764 -0.055696
0.048862 -3.431317 -0.095735
-0.312336 -3.279028 -0.118478
-0.197904 -3.375738 -0.153141
-0.073486 -3.296202 -0.181273
0.046048 -3.310790 -0.213714
-0.314764 -3.286286 -0.239480
-0.203028 -3.435419 -0.282633
-0.077780 -3.400884 -0.311441
-0.186123 -3.099055 0.427988
-0.074176 -3.171197 0.406463
0.040809 -3.163574 0.375137
-0.291890 -3.015428 0.335105
-0.186358 -3.086758 0.311223
-0.073961 -3.113183 0.284169
0.039085 -3.149244 0.257551
-0.292747 -3.010581 0.223135
-0.184574 -3.050134 0.196105
-0.074116 -3.074512 0.168173
0.036359 -3.058661 0.138261
-0.293899 -3.012607 0.112526
-0.182463 -2.989297 0.082608
-0.074327 -3.030594 0.054768
0.035639 -3.024676 0.026239
-0.329221 -3.361918 0.002299
-0.186147 -3.039182 -0.027316
-0.076263 -3.061540 -0.055915
0.038212 -3.420456 -0.095428
-0.322688 -3.281038 -0.118586
-0.204384 -3.312299 -0.150290
-0.084054 -3.313927 -0.182261
0.035988 -3.319896 -0.214293
-0.324256 -3.279349 -0.239046
-0.213876 -3.439754 -0.283043
-0.088575 -3.414566 -0.312718
-0.195505 -3.096492 0.427715
-0.084298 -3.185828 0.408370
0.031045 -3.157727 0.374430
-0.301831 -3.021442 0.335874
-0.194819 -3.070284 0.309620
-0.087197 -3.250321 0.296710
0.029395 -3.146359 0.257307
-0.303077 -3.020584 0.223944
-0.192221 -3.022664 0.194375
-0.083440 -3.070278 0.167955
0.026773 -3.035782 0.137222
-0.303641 -3.016663 0.112712
-0.194640 -3.035609 0.083904
-0.083735 -3.034350 0.054840
0.026289 -3.016772 0.026170
-0.339533 -3.360892 0.002299
-0.200413 -3.115435 -0.028007
-0.085571 -3.058293 -0.055861
0.027637 -3.410561 -0.095150
-0.330533 -3.258159 -0.117795
-0.212801 -3.284740 -0.149069
-0.093455 -3.286706 -0.180779
0.025849 -3.325978 -0.214680
-0.339981 -3.333904 -0.243097
-0.224558 -3.441071 -0.283206
-0.099368 -3.425228 -0.313721
-0.203891 -3.079074 0.425393
-0.091788 -3.108220 0.398456
0.021263 -3.143905 0.372782
-0.311100 -3.020502 0.335874
-0.203511 -3.058751 0.308519
-0.097645 -3.265965 0.298164
0.020036 -3.193278 0.261138
-0.309572 -2.992856 0.221957
-0.202821 -3.041974 0.195656
-0.092889 -3.071005 0.168009
0.017528 -3.047838 0.137764
-0.312894 -3.015717 0.112712
-0.203081 -3.022032 0.083545
-0.092829 -3.027083 0.054713
0.017062 -3.021838 0.026213
-0.350464 -3.365802 0.002303
-0.218983 -3.248497 -0.029209
-0.095233 -3.067010 -0.056025
0.017103 -3.396635 -0.094759
-0.340320 -3.255142 -0.117723
-0.219428 -3.233241 -0.146762
-0.104072 -3.303369 -0.181712
0.015687 -3.335023 -0.215260
-0.349999 -3.330862 -0.242953
-0.236269 -3.457269 -0.284598
-0.109748 -3.420926 -0.313356
-0.212515 -3.066575 0.423754
-0.102132 -3.132708 0.401634
0.011687 -3.162823 0.375019
-0.319526 -3.011626 0.334995
-0.212203 -3.048187 0.307518
-0.108944 -3.304467 0.301708
0.010677 -3.329868 0.272304
-0.318752 -2.991893 0.221957
-0.211319 -3.029391 0.194888
-0.102975 -3.090665 0.169101
0.008212 -3.060864 0.138351
-0.322039 -3.013749 0.112674
-0.211791 -3.013418 0.083325
-0.101644 -3.012794 0.054460
0.007786 -3.019876 0.026196
-0.363028 -3.385592 0.002318
-0.242237 -3.436334 -0.030905
-0.104505 -3.062707 -0.055952
0.006661 -3.385676 -0.094452
-0.350626 -3.257063 -0.117831
-0.234720 -3.308285 -0.150200
-0.114724 -3.318003 -0.182536
0.005436 -3.323081 -0.214487
-0.360217 -3.329772 -0.242953
-0.244389 -3.421734 -0.281733
-0.121013 -3.442468 -0.315362
-0.220849 -3.051087 0.421706
-0.112626 -3.157161 0.404811
0.001971 -3.141990 0.372546
-0.329303 -3.015572 0.335544
-0.221337 -3.044545 0.307217
-0.114132 -3.166778 0.289167
0.000463 -3.341845 0.273282
-0.329234 -3.002797 0.222840
-0.219525 -3.013799 0.193927
-0.111149 -3.054412 0.167136
-0.001184 -3.074860 0.138983
-0.332703 -3.025660 0.113157
-0.221327 -3.016741 0.083435
-0.110887 -3.012468 0.054460
-0.001481 -3.023886 0.026231
-0.371110 -3.363589 0.002303
-0.254980 -3.465492 -0.031174
-0.114458 -3.077359 -0.056226
-0.003747 -3.404673 -0.094982
-0.360727 -3.256965 -0.117867
-0.241697 -3.264710 -0.148255
-0.124152 -3.297680 -0.181438
-0.004778 -3.336055 -0.215324
-0.372637 -3.348476 -0.244400
-0.254516 -3.415999 -0.281324
-0.132638 -3.469943 -0.317915
-0.230060 -3.048420 0.421433
-0.121774 -3.142925 0.403032
-0.007691 -3.150919 0.373606
-0.230301 -3.038890 0.306716
-0.122835 -3.140540 0.286804
-0.009682 -3.304954 0.270266
-0.337887 -2.996818 0.222472
-0.229223 -3.019082 0.194311
-0.120047 -3.042084 0.166480
-0.010614 -3.073843 0.138938
-0.342433 -3.028597 0.113306
-0.231496 -3.028009 0.083766
-0.120367 -3.018108 0.054569
-0.010808 -3.037866 0.026352
-0.381089 -3.359453 0.002301
-0.264464 -3.449738 -0.031039
-0.125106 -3.106964 -0.056773
-0.014155 -3.395649 -0.094731
-0.370039 -3.249886 -0.117651
-0.253555 -3.287858 -0.149340
-0.134431 -3.301274 -0.181657
-0.015035 -3.341014 -0.215646
-0.383475 -3.352272 -0.244762
-0.265612 -3.423151 -0.281979
-0.144270 -3.493400 -0.320103
-0.015643 -3.138021 0.489443
-0.131665 -3.148483 0.403794
-0.017204 -3.123075 0.370309
-0.239388 -3.035194 0.306416
-0.133267 -3.159053 0.288531
-0.019175 -3.197270 0.261464
-0.347882 -3.002701 0.222987
-0.238721 -3.021349 0.194504
-0.129507 -3.044694 0.166644
-0.020012 -3.068802 0.138712
-0.352530 -3.034481 0.113566
-0.240626 -3.025291 0.083711
-0.130055 -3.027713 0.054749
-0.020115 -3.035819 0.026335
-0.391741 -3.361248 0.002303
-0.274649 -3.443927 -0.030994
-0.135417 -3.124546 -0.057102
-0.024580 -3.396590 -0.094759
-0.381401 -3.260646 -0.118083
-0.261484 -3.260178 -0.148119
-0.144864 -3.307829 -0.182041
-0.025301 -3.342948 -0.215775
-0.390499 -3.323344 -0.242736
-0.274189 -3.398478 -0.280014
-0.154236 -3.476028 -0.318553
-0.025048 -3.110294 0.485128
-0.140345 -3.126264 0.400998
-0.027016 -3.149819 0.373488
-0.248374 -3.030479 0.306015
-0.142868 -3.156639 0.288349
-0.028623 -3.157330 0.258204
-0.358153 -3.010533 0.223650
-0.246764 -3.005683 0.193543
-0.138756 -3.042287 0.166535
-0.029427 -3.068726 0.138712
-0.362785 -3.041323 0.113863
-0.249495 -3.019558 0.083573
-0.139481 -3.030297 0.054804
-0.029535 -3.046742 0.026430
-0.403240 -3.369960 0.002310
-0.283315 -3.420147 -0.030788
-0.146717 -3.161070 -0.057777
-0.035124 -3.408493 -0.095094
-0.390211 -3.249539 -0.117723
-0.274388 -3.294204 -0.149702
-0.154497 -3.296397 -0.181438
-0.035302 -3.318906 -0.214229
-0.393646 -3.263708 -0.238467
-0.283616 -3.385703 -0.279032
-0.163956 -3.455644 -0.316729
-0.034656 -3.116130 0.486053
-0.150078 -3.128791 0.401379
-0.036448 -3.129862 0.371133
-0.257586 -3.028711 0.305915
-0.151205 -3.128335 0.285805
-0.038551 -3.177160 0.259834
-0.369442 -3.026249 0.224900
-0.257593 -3.023805 0.194760
-0.148186 -3.043842 0.166644
-0.038993 -3.080608 0.139254
-0.259099 -3.022762 0.083683
-0.148483 -3.023863 0.054695
-0.038844 -3.043638 0.026404
-0.412846 -3.362751 0.002306
-0.293892 -3.420258 -0.030797
-0.166200 -3.358330 -0.061392
-0.045474 -3.400373 -0.094871
-0.401034 -3.255269 -0.117975
-0.282343 -3.268465 -0.148571
-0.164909 -3.301891 -0.181767
-0.045251 -3.301819 -0.213134
-0.294346 -3.388789 -0.279359
-0.174456 -3.453136 -0.316547
-0.044062 -3.105142 0.484358
-0.159069 -3.116429 0.399854
-0.045728 -3.107891 0.368543
-0.266789 -3.026915 0.305815
-0.160086 -3.113932 0.284533
-0.048283 -3.176030 0.259752
-0.378849 -3.026091 0.224974
-0.266781 -3.022006 0.194696
-0.157524 -3.043373 0.166644
-0.048366 -3.075479 0.139028
-0.268814 -3.026931 0.083821
-0.158750 -3.042364 0.055038
-0.048229 -3.046504 0.026430
-0.422661 -3.357500 0.002303
-0.303586 -3.410376 -0.030716
-0.177394 -3.374778 -0.061702
-0.056169 -3.416209 -0.095317
-0.411771 -3.259972 -0.118191
-0.292102 -3.264599 -0.148436
-0.174192 -3.285416 -0.180889
-0.054929 -3.274724 -0.211395
-0.304652 -3.386877 -0.279277
-0.053452 -3.097089 0.483125
-0.179243 -3.312034 0.425020
-0.056234 -3.162345 0.375019
-0.275622 -3.021128 0.305315
-0.169531 -3.111438 0.284351
-0.057918 -3.169888 0.259263
-0.389527 -3.035795 0.225783
-0.277232 -3.034093 0.195528
-0.167298 -3.050852 0.167081
-0.057726 -3.071321 0.138848
-0.278556 -3.031069 0.083959
-0.167200 -3.025889 0.054749
-0.057556 -3.045342 0.026422
-0.432959 -3.356188 0.002303
-0.313497 -3.403455 -0.030662
-0.188247 -3.383202 -0.061867
-0.066669 -3.417020 -0.095345
-0.422668 -3.265631 -0.118442
-0.304143 -3.285571 -0.149431
-0.183712 -3.274897 -0.180340
-0.065847 -3.318440 -0.214229
-0.315596 -3.391881 -0.279769
-0.064178 -3.157169 0.492525
-0.065936 -3.162157 0.375019
-0.285076 -3.022250 0.305515
-0.178274 -3.096984 0.283078
-0.066771 -3.128841 0.255921
-0.400269 -3.045462 0.226592
-0.284287 -3.009384 0.193991
-0.175675 -3.033378 0.166153
-0.067039 -3.066136 0.138622
-0.288516 -3.037167 0.084152
-0.177473 -3.042331 0.055057
-0.066789 -3.040152 0.026378
-0.442599 -3.349887 0.002300
-0.325928 -3.423382 -0.030851
-0.198743 -3.384605 -0.061903
-0.077265 -3.421796 -0.095484
-0.432291 -3.261347 -0.118334
-0.312604 -3.267717 -0.148662
-0.194112 -3.280299 -0.180669
-0.075639 -3.301263 -0.213134
-0.325905 -3.389904 -0.279687
-0.074687 -3.122230 0.370309
-0.293479 -3.012448 0.304614
-0.187293 -3.088470 0.282351
-0.079653 -3.263132 0.266924
-0.408413 -3.035325 0.225930
-0.293809 -3.011477 0.194183
-0.184312 -3.021861 0.165552
-0.076545 -3.069911 0.138803
-0.297052 -3.028309 0.083931
-0.186193 -3.031792 0.054876
-0.075966 -3.033935 0.026326
-0.455555 -3.368333 0.002314
-0.336429 -3.422365 -0.030851
-0.208879 -3.379987 -0.061830
-0.087404 -3.407553 -0.095094
-0.444176 -3.273870 -0.118838
-0.322039 -3.260778 -0.148390
-0.203306 -3.265736 -0.179900
-0.085844 -3.304008 -0.213327
-0.335319 -3.378971 -0.278868
-0.200562 -3.165717 0.406463
-0.084399 -3.126949 0.370898
-0.303217 -3.016484 0.305114
-0.195881 -3.073967 0.281079
-0.091197 -3.318665 0.271489
-0.417451 -3.032081 0.225783
-0.303046 -3.010561 0.194183
-0.193710 -3.023275 0.165661
-0.085823 -3.064668 0.138577
-0.303523 -2.999536 0.083159
-0.195043 -3.024222 0.054749
-0.085105 -3.027690 0.026274
-0.348743 -3.439225 -0.031012
-0.219248 -3.379331 -0.061830
-0.097771 -3.404271 -0.095010
-0.454355 -3.273481 -0.118874
-0.330522 -3.244867 -0.147712
-0.213194 -3.263104 -0.179791
-0.096154 -3.309714 -0.213714
-0.343148 -3.353139 -0.276822
-0.208235 -3.134406 0.402523
-0.094828 -3.154468 0.374195
-0.312368 -3.014550 0.305014
-0.204182 -3.056460 0.279534
-0.102565 -3.357222 0.274667
-0.313311 -3.019544 0.194824
-0.203519 -3.030636 0.166098
-0.094853 -3.052409 0.138035
-0.315420 -3.024440 0.083876
-0.203915 -3.017624 0.054641
-0.094019 -3.015421 0.026170
-0.359916 -3.444106 -0.031066
-0.229818 -3.381635 -0.061885
-0.107834 -3.391966 -0.094676
-0.462430 -3.258220 -0.118370
-0.340789 -3.246818 -0.147847
-0.221977 -3.244504 -0.178802
-0.106372 -3.311398 -0.213842
-0.353433 -3.352071 -0.276822
-0.216475 -3.113962 0.399981
-0.104637 -3.158132 0.374666
-0.321509 -3.012588 0.304914
-0.211961 -3.032970 0.277444
-0.113099 -3.363864 0.275238
-0.321937 -3.012614 0.194439
-0.212187 -3.021033 0.165607
-0.103944 -3.044116 0.137674
-0.324057 -3.017495 0.083711
-0.213807 -3.025961 0.054804
-0.103475 -3.021115 0.026222
-0.369732 -3.436026 -0.031003
-0.241892 -3.404849 -0.062323
-0.118135 -3.388622 -0.094592
-0.471276 -3.248874 -0.118083
-0.350748 -3.245757 -0.147847
-0.235562 -3.294601 -0.181602
-0.116495 -3.310059 -0.213778
-0.365006 -3.362861 -0.277804
-0.221071 -3.045023 0.391211
-0.116014 -3.204439 0.380200
-0.329881 -3.003675 0.304113
-0.221265 -3.032305 0.277444
-0.123528 -3.366489 0.275482
-0.332378 -3.022524 0.195144
-0.221308 -3.018376 0.165498
-0.112948 -3.034798 0.137267
-0.336167 -3.042319 0.084428
-0.223677 -3.033268 0.054948
-0.112855 -3.023781 0.026248
-0.380932 -3.440839 -0.031057
-0.251450 -3.392126 -0.062104
-0.128228 -3.380253 -0.094369
-0.478458 -3.228630 -0.117400
